236.93097861343662	-638.9552029740885	-402.02422436065183
235.7546203981987	-637.7785288237002	-402.0239084255015
235.53290677879758	-637.5569266567952	-402.0240198779976
236.17174678961592	-638.1960800590458	-402.0243332694299
237.26577752239328	-639.2902420153972	-402.02446449300396
238.60844888944513	-640.6328716805491	-402.024422791104
240.19828238017575	-642.2227903846731	-402.0245080044973
241.86377595044834	-643.888576622524	-402.0248006720757
243.16778700203437	-645.1928174059896	-402.02503040395516
243.76183843233	-645.7868444780199	-402.0250060456899
243.66074982199223	-645.6855641431152	-402.024814321123
243.14682098791468	-645.1714636449929	-402.0246426570782
242.46948111167274	-644.4942012909407	-402.024720179268
241.12394704721166	-643.1484531576584	-402.02450611044674
239.28311696608168	-641.3071862863749	-402.02406932029317
237.6926327753448	-639.7161932896595	-402.0235605143147
237.18099118861	-639.2042285045064	-402.02323731589644
238.27920021652068	-640.3024763202906	-402.0232761037699
240.96084046789343	-642.9844974774129	-402.02365700951947
244.6677654686437	-646.6919648906178	-402.0241994219741
248.56657537514508	-650.5914968876383	-402.0249215124932
251.7232447017729	-653.7483860380664	-402.02514133629353
253.76900471576522	-655.7932790726086	-402.02427435684336
255.39446379040632	-657.4188426309469	-402.0243788405405
256.66150882219523	-658.6860985453997	-402.02458972320443
257.32024615410006	-659.3449317635316	-402.0246856094315
257.3071864430981	-659.3316866656806	-402.02450022258256
256.9571677703314	-658.9813202817194	-402.02415251138797
256.81892137044287	-658.8429062266027	-402.02398485615987
257.1874131951823	-659.2115471685095	-402.0241339733272
257.92926204031625	-659.9533338269637	-402.0240717866474
258.955954202266	-660.9810539972782	-402.0250997950122
259.73578122889273	-661.7607815968288	-402.02500036793606
260.03062556701383	-662.0554299462267	-402.02480437921287
260.1258038631419	-662.1504256898884	-402.02462182674645
260.3173499011747	-662.3418248931581	-402.0244749919834
260.8506507964605	-662.8750690676865	-402.02441827122595
261.83240233927205	-663.8573381582906	-402.0249358190186
262.97829902349923	-665.003297678414	-402.0249986549148
264.0777046943716	-666.1027356744981	-402.02503098012653
265.08619644068193	-667.1113274949113	-402.02513105422935
265.8812737303612	-667.9063095835801	-402.02503585321887
266.71699331704554	-668.7422771624672	-402.02528384542165
267.60664404650106	-669.6322183959123	-402.0255743494113
268.1831427803475	-670.2089443510813	-402.0258015707338
268.2022804990725	-670.2281267926601	-402.02584629358756
267.7152226575578	-669.7408543666996	-402.02563170914186
267.1534030505343	-669.178304741625	-402.0249016910907
267.3250385069668	-669.3498284739975	-402.0247899670307
268.5521595190649	-670.5771451346536	-402.0249856155887
270.5671493963674	-672.5924128139318	-402.02526341756436
272.93251233601643	-674.9578825201252	-402.02537018410874
275.4141529530792	-677.4393768955757	-402.0252239424965
278.1050153419322	-680.1300362525354	-402.02502091060325
281.1711646484211	-683.1961948358025	-402.02503018738145
284.4965034824032	-686.5218181620761	-402.0253146796729
287.60009478122237	-689.6258198717383	-402.0257250905159
289.84999155100223	-691.8760796070426	-402.02608805604035
290.7334157857712	-692.7597001271334	-402.02628434136227
290.06362545702063	-692.0898037959525	-402.0261783389319
288.17282225675456	-690.1985378791364	-402.0257156223819
285.94238440338665	-687.9675200278621	-402.0251356244754
284.3900068518249	-686.4148626350401	-402.0248557832152
284.11409026247213	-686.1389338825832	-402.024843620111
285.27222876979545	-687.2970859911093	-402.0248572213138
287.8643769323953	-689.88929587768	-402.02491894528464
291.72021542746256	-693.7454116366621	-402.0251962091995
296.3142025876547	-698.3398536434764	-402.02565105582175
300.8383608277332	-702.8644493161644	-402.0260884884312
304.5158606832665	-706.5421495336057	-402.02628885033914
306.904603050872	-708.9309281123417	-402.02632506146966
307.96668270605016	-709.9929321916267	-402.0262494855765
307.81100753312245	-709.8372681973638	-402.0262606642413
306.55504545447076	-708.5810250073541	-402.02597955288337
304.74525110865403	-706.7706546763435	-402.02540356768947
303.2175406243213	-705.2429738507635	-402.0254332264422
301.9932628637031	-704.0192918971356	-402.02602903343256
300.35822418797676	-702.3843926174745	-402.0261684294978
298.1664544859082	-700.1921466347959	-402.0256921488877
296.14410774248495	-698.1692911238908	-402.0251833814059
295.0920096305877	-697.1173223342937	-402.025312703706
294.9039175586111	-696.9301374291801	-402.02621987056904
294.5523762822389	-696.5792096691112	-402.0268333868722
293.19379559634564	-695.2208858950173	-402.0270902986717
290.58006581068355	-692.6070918081841	-402.0270259975006
287.0928588005058	-689.1191302101664	-402.02627140966064
284.18809411283024	-686.2127636277864	-402.0246695149562
284.2521479775273	-686.2761288527809	-402.0239808752536
288.13502343142966	-690.1605746091764	-402.0255511777467
293.53840853523997	-695.5658554746248	-402.0274469393848
297.60303503491235	-699.6310219343156	-402.0279868994033
299.2801235489385	-701.3074038417374	-402.0272802927989
299.3236202349704	-701.3499799462998	-402.02635971132935
299.062001060274	-701.0877697089965	-402.0257686487225
299.42214469827564	-701.4477845319436	-402.025639833668
300.61060490188646	-702.6366641013002	-402.02605919941374
302.06159590299495	-704.0881898523876	-402.02659394939263
303.1179853970696	-705.1443190356722	-402.0263336386026
304.1235772195494	-706.149320430139	-402.0257432105896
305.86775803208553	-707.8937182902682	-402.0259602581827
307.9896711759359	-710.0165260349199	-402.02685485898405
309.3440836995077	-711.3712051580421	-402.02712145853445
309.81122043913257	-711.8375069769567	-402.0262865378241
310.45622319291334	-712.4824331130185	-402.02620992010515
311.40444066166566	-713.4312775067368	-402.02683684507116
311.78287748047285	-713.8101192619533	-402.0272417814805
310.91453580654075	-712.9423186488133	-402.02778284227253
308.388728869769	-710.4160328212997	-402.0273039515307
305.4368132610287	-707.4624741253012	-402.02566086427254
304.25927202138064	-706.2859892972724	-402.02671727589177
303.8354846554347	-705.8628751100135	-402.02739045457884
303.0809366650127	-705.1070856042983	-402.0261489392856
303.2859428167405	-705.3114608071812	-402.02551799044073
305.16289266280825	-707.1885832663432	-402.025690603535
308.2681341385693	-710.2941650387284	-402.02603090015907
311.8493922606508	-713.8758448910914	-402.02645263044064
315.13728515282577	-717.1640003781854	-402.0267152253596
317.6193491738086	-719.6462607064416	-402.026911532633
318.9963821493564	-721.0232936196418	-402.02691147028537
319.3834219241049	-721.4097731133687	-402.02635118926383
319.6006896215089	-721.6266831091431	-402.0259934876342
320.15385332975427	-722.1804223996996	-402.02656906994537
320.3895552910396	-722.4166655184953	-402.0271102274557
319.68684782614184	-721.7136085988914	-402.0267607727495
318.5809391588029	-720.6070235563	-402.0260843974971
317.96058630881055	-719.9869381979188	-402.02635188910824
317.488298515331	-719.5154249978419	-402.02712648251094
316.17360984570325	-718.2006649277513	-402.02705508204804
314.11880730415066	-716.1450455647098	-402.0262382605591
312.4788373953988	-714.504494130597	-402.0256567351982
312.14215779088187	-714.1680039435208	-402.02584615263896
312.96035731633276	-714.9867295796817	-402.0263722633489
314.25766773512896	-716.2843476471445	-402.02667991201554
315.72614519356915	-717.752654402206	-402.0265092086368
317.53323874775515	-719.5600122887531	-402.02677354099797
319.22992100239884	-721.2577140283663	-402.02779302596747
319.5143621082891	-721.54264843594	-402.0282863276509
317.8786293650626	-719.9060180689992	-402.0273887039366
315.7355638711261	-717.7614774084873	-402.0259135373612
315.22833891294533	-717.2536745543855	-402.02533564144017
317.1252769812034	-719.1512649033524	-402.025987922149
320.63716794368423	-722.6637557012984	-402.0265877576142
324.5905117816519	-726.617684057133	-402.0271722754811
327.8137551978267	-729.841261617897	-402.02750642007027
329.55889953274203	-731.5864493986859	-402.02754986594385
329.58858934840424	-731.6161607641446	-402.0275714157404
327.8378177149257	-729.8656719171311	-402.0278542022054
324.1122930012675	-726.1403216751769	-402.0280286739094
318.5836510073829	-720.6111555355479	-402.027504528165
312.44638005724613	-714.4729913422217	-402.02661128497556
307.5526527957732	-709.5783980111062	-402.02574521533296
305.55873335780734	-707.5844307321016	-402.0256973742943
306.61862181289194	-708.6450679282718	-402.0264461153799
309.6610595643036	-711.6877299654482	-402.02667040114454
313.9388173090061	-715.9658162715886	-402.02699896258247
318.5699719102276	-720.5980220973654	-402.0280501871378
321.8637161443738	-723.8928939306263	-402.0291777862525
322.15541960158777	-724.1850794108514	-402.0296598092636
318.9039187017954	-720.932899753662	-402.0289810518666
313.44096553001174	-715.4680041164946	-402.0270385864829
308.80873006637944	-710.834077481366	-402.0253474149865
307.5307962875811	-709.5561633523918	-402.02536706481067
309.60390376283004	-711.6303533418452	-402.02644957901515
313.23189653058944	-715.2593982644427	-402.0275017338532
316.51145703099763	-718.539445839957	-402.0279888089594
318.3979553099943	-720.4258757604078	-402.02792045041355
318.8864151624981	-720.9135588667252	-402.0271437042271
319.11324117846823	-721.1392502053427	-402.0260090268745
320.64103190685256	-722.6668372487205	-402.02580534186797
323.7369401710645	-725.7636665981839	-402.02672642711946
327.07202515724003	-729.0996738949008	-402.02764873766074
329.22041605572457	-731.248198140476	-402.02778208475144
329.78670937837444	-731.8142700187988	-402.0275606404243
328.9713764049289	-730.9988290461723	-402.0274526412434
327.0314990059546	-729.0584144165426	-402.02691541058806
324.8075189131403	-726.8335578399543	-402.026038926814
323.46355667423825	-725.4895301121929	-402.0259734379547
323.0770903983263	-725.1037264554371	-402.02663605711086
322.72277354157325	-724.7497336105166	-402.02696006894337
321.84527989901943	-723.8720242609182	-402.0267443618988
320.6533005843874	-722.6797516765657	-402.0264510921783
319.5444973103768	-721.5709409065921	-402.0264435962153
318.56616087255895	-720.5929725820585	-402.0268117094995
317.28081280859305	-719.3081733735285	-402.0273605649354
315.07130214580957	-717.0989424465703	-402.0276403007607
311.8392849723699	-713.8662456841738	-402.0269607118039
308.8355718226301	-710.8611764644041	-402.02560464177407
308.00019585608567	-710.025553184271	-402.0253573281853
309.73112796598394	-711.7572158204481	-402.02608785446415
312.85792962199366	-714.8849089549823	-402.0269793329886
315.6729013779272	-717.7011248000051	-402.02822342207793
316.3128695876383	-718.3418090275951	-402.0289394399568
313.6608579253961	-715.6897433935837	-402.02888546818764
307.96431537428026	-709.9922696065998	-402.0279542323196
300.69177553419075	-702.718647647671	-402.02687211348024
293.57777910888984	-695.604166280877	-402.0263871719872
287.61767860466097	-689.6441068866587	-402.02642828199777
283.03732400003025	-685.0635884308567	-402.0262644308265
280.1532851662597	-682.1793099547526	-402.0260247884929
279.3408172471019	-681.3666424453747	-402.02582519827286
280.8528255351843	-682.8785259016008	-402.0257003664165
284.6261766156132	-686.6524071118704	-402.0262304962572
289.68372554929164	-691.7109144456393	-402.0271888963477
294.3347835432247	-696.3624948481389	-402.0277113049142
297.52203314798425	-699.5493950095147	-402.02736186153044
299.54575634424197	-701.5724601980429	-402.02670385380094
301.1367599695708	-703.1633577945632	-402.02659782499245
302.35721154492	-704.3842235815398	-402.0270120366198
302.55900729047215	-704.5864559992433	-402.02744870877115
301.0424086626031	-703.0700514775839	-402.02764281498077
297.52858946349056	-699.5559204180532	-402.0273309545627
292.5358365261815	-694.5622947099233	-402.0264581837418
287.41041440522906	-689.4358747611114	-402.0254603558824
283.6889332607986	-685.7138777436115	-402.02494448281294
282.25507771134045	-684.2800362395348	-402.0249585281943
283.22405338714003	-685.2490839113548	-402.02503052421474
286.44558261473304	-688.4708098014307	-402.0252271866977
291.4411069736213	-693.466908537106	-402.02580156348466
297.1737126593491	-699.2001008322476	-402.02638817289846
302.5001168339491	-704.5268838499513	-402.0267670160022
306.6650162630828	-708.6918548200127	-402.02683855692993
309.365751196911	-711.3924737837938	-402.0267225868828
310.65027047344915	-712.6767211338465	-402.02645066039736
310.8370690074685	-712.863287896406	-402.0262188889375
310.2319645635957	-712.258237311132	-402.0262727475363
308.8082306847886	-710.8348129446875	-402.02658225989893
306.26537244845326	-708.2921556499699	-402.02678320151665
302.53083503162213	-704.5573262922611	-402.026491260639
298.27843559055805	-700.3041508281759	-402.0257152376179
294.8398131193666	-696.8649297351661	-402.0251166157995
293.20776307435784	-695.233064640732	-402.02530156637414
293.2490655613917	-695.2750813632244	-402.0260158018327
294.0223115362845	-696.0488613039647	-402.0265497676802
294.7415568446517	-696.7681561076321	-402.02659926298037
295.2639867808465	-697.2903124092439	-402.02632562839744
295.8850065801455	-697.9111981105356	-402.02619153039007
296.7239804026296	-698.7504334993018	-402.02645309667224
297.40692019376314	-699.4337048794833	-402.0267846857202
297.4378898021156	-699.4647653568376	-402.026875554722
296.73373398539775	-698.7603377433763	-402.0266037579786
295.7078020259476	-697.7342282092768	-402.0264261833292
294.68980428055306	-696.7162957201084	-402.02649143955534
293.6943587215519	-695.7210356242674	-402.0266769027155
292.5623295473334	-694.5891857450948	-402.02685619776145
291.17860248305544	-693.2053998257666	-402.0267973427111
289.8252160286466	-691.8514113953331	-402.0261953666865
289.48057993370304	-691.5061008612362	-402.02552092753314
291.03688408488915	-693.0627982634207	-402.0259141785316
293.9212621513671	-695.9482538708766	-402.02699171950945
296.6007609232162	-698.6281800009	-402.02741907768376
298.2159096520523	-700.2429377774417	-402.02702812538945
299.05097270639857	-701.0775099779539	-402.02653727155536
299.653902155124	-701.6802255047096	-402.0263233495856
300.27704224405204	-702.3032944244624	-402.0262521804103
300.92488085115315	-702.9512220845195	-402.02634123336634
301.3980203668944	-703.4245894757773	-402.02656910888294
301.37516271806584	-703.4019407485815	-402.0267780305157
300.60801000816707	-702.634736114534	-402.02672610636694
299.23994977710305	-701.2664181852099	-402.02646840810684
297.7376663640063	-699.7639256055799	-402.02625924157354
296.4127470689802	-698.4394114737421	-402.0266644047619
295.17585963281283	-697.2027196214937	-402.0268599886808
293.92777522973256	-695.9547886255654	-402.0270133958328
292.7263010181398	-694.7529774836438	-402.026676465504
292.1034635728029	-694.1297789640851	-402.02631539128214
292.7321928935391	-694.758128845357	-402.02593595181787
295.1029313459075	-697.1293153440502	-402.02638399814265
298.53933547802654	-700.5666580785553	-402.02732260052875
301.70283791921884	-703.7303353436106	-402.02749742439175
304.0633102214168	-706.090644119082	-402.02733389766513
305.4996456106517	-707.5273016736248	-402.0276560629731
305.65733971286807	-707.684699457179	-402.02735974431096
304.8478175344937	-706.8744888490831	-402.02667131458946
304.0035354891183	-706.0297859020766	-402.0262504129583
303.8136486240796	-705.8395972266056	-402.02594860252606
304.6903197322703	-706.7163447063076	-402.0260249740373
306.4521523222543	-708.4787896591313	-402.026637336877
308.17745884541364	-710.2048209113558	-402.02736206594216
308.78462011097736	-710.8123757316032	-402.02775562062584
307.70144420523974	-709.7290730851562	-402.02762887991645
305.17003724679233	-707.1970742167919	-402.02703696999953
302.1425829520499	-704.1688962453609	-402.026313293311
299.8127941209705	-701.8385334009392	-402.0257392799687
299.0472813524235	-701.073035160578	-402.0257538081545
299.8929104975376	-701.9194960024437	-402.02658550490605
301.3514389158872	-703.3787193715045	-402.02728045561736
302.5012153827591	-704.5284679872951	-402.02725260453605
303.4082417803409	-705.435011405109	-402.02676962476806
304.6882464965779	-706.7149508101644	-402.0267043135865
306.3976570959074	-708.4247317907079	-402.02707469480055
307.90574741297337	-709.9333236503464	-402.02757623737307
308.552814984739	-710.5804015749966	-402.0275865902576
308.29023277346715	-710.3175939940994	-402.02736122063226
307.4495255170023	-709.4766155898822	-402.02709007287984
306.53038535054077	-708.5573889037784	-402.0270035532376
305.93168793917295	-707.9586863273726	-402.0269983881996
305.85421117232687	-707.880879598069	-402.0266684257421
306.803149014976	-708.8295756905896	-402.02642667561366
309.0857516210568	-711.1124029645655	-402.0266513435087
312.3251813908285	-714.3521793709766	-402.0269979801481
315.84704626435393	-717.8744800195263	-402.0274337551724
318.885516210473	-720.9132641833025	-402.02774797282956
320.85486044239644	-722.8824859714131	-402.02762552901663
321.6808057987011	-723.708234605811	-402.02742880710986
321.5612543251207	-723.5886580789405	-402.02740375381984
320.46772294123167	-722.4954323780008	-402.02770943676916
318.0114587866425	-720.0391705811987	-402.02771179455624
314.23909455469243	-716.2662473831773	-402.0271528284849
310.03706732651864	-712.063371615711	-402.0263042891924
306.82803608723026	-708.8533414807712	-402.0253053935409
306.12620230122207	-708.1512612756726	-402.02505897445053
308.20181584209405	-710.2280349781488	-402.02621913605475
311.3784769415489	-713.4058858150635	-402.02740887351456
313.76335482280155	-715.7912205064672	-402.02786568366565
314.4804005624294	-716.5082331948655	-402.0278326324361
313.49378191396954	-715.5213765814962	-402.0275946675266
311.1830300085545	-713.2103791429928	-402.0273491344383
308.0348004928107	-710.0619431271044	-402.02714263429374
304.5406018345558	-706.5675128553822	-402.02691102082645
301.24802763415215	-703.2746279067125	-402.0266002725603
298.8086450593947	-700.8347703852065	-402.02612532581185
298.0383222029234	-700.0639945013514	-402.02567229842805
299.609459766833	-701.6352398754068	-402.02578010857377
303.3232122482109	-705.3498302431033	-402.0266179948924
307.9671532659364	-709.9945211556322	-402.0273678896958
312.3919906741318	-714.4194132545815	-402.0274225804497
316.2841395280391	-718.3115879205664	-402.0274483925273
319.3521619224703	-721.3803375569878	-402.0281756345175
320.4809041003186	-722.5098892383687	-402.02898513805013
318.6010031392911	-720.6297986184636	-402.0287954791725
314.05732087204996	-716.0850643330924	-402.02774346104246
308.5738481745686	-710.6003326394749	-402.02648446490633
304.14743979660096	-706.1736123797278	-402.0261725831269
301.4105733074616	-703.4375245352225	-402.02695122776083
299.474642605163	-701.5020429191158	-402.02740031395274
297.7322254999509	-699.7591964621643	-402.02697096221334
296.67217952891815	-698.6986710885192	-402.026491559601
296.8618961854121	-698.8885191576344	-402.0266229722223
298.0992874971016	-700.1260749019295	-402.0267874048279
300.0009038569825	-702.0277178390857	-402.02681398210314
302.3582863270084	-704.3853387682268	-402.0270524412184
304.69973193280185	-706.727210186026	-402.02747825322416
306.36010814334634	-708.3876238398099	-402.0275156964635
307.20579748165966	-709.2328679224721	-402.02707044081245
307.77371163281583	-709.8003603241543	-402.0266486913385
308.591255765031	-710.6179794065325	-402.0267236415015
309.4965009359292	-711.5238302125641	-402.02732927663493
309.58284416854207	-711.6109020066704	-402.0280578381283
307.82356840890174	-709.8518691784755	-402.0283007695737
303.9845862906342	-706.012258669083	-402.02767237844887
299.13942045978547	-701.1659523600215	-402.026531900236
295.0417956415675	-697.0677732755177	-402.02597763395016
292.6158158118118	-694.6421016314354	-402.0262858196236
291.47794210419846	-693.5046780067609	-402.0267359025624
290.68724876171297	-692.7139843109113	-402.02673554919835
289.99756633958873	-692.0241727554439	-402.0266064158552
289.43940149597495	-691.466098176872	-402.0266966808971
288.83951889317154	-690.8663338303946	-402.0268149372231
288.07372526797786	-690.1002672236069	-402.02654195562906
287.57644059210025	-689.6023842379386	-402.02594364583837
288.09128575376576	-690.1173182042456	-402.0260324504799
289.44716483781514	-691.4739952575246	-402.0268304197095
290.5283248035367	-692.5555704869726	-402.02724568343586
290.74597710239226	-692.7726166926516	-402.0266395902593
290.63874037499824	-692.6648440382091	-402.0261036632109
290.98824860449827	-693.0139882566813	-402.025739652183
292.3479560935822	-694.3738036458147	-402.02584755223256
294.4833001256233	-696.5097479430698	-402.02644781744647
296.5197016774504	-698.546291164401	-402.0265894869506
298.03786014174204	-700.0642494553324	-402.02638931359036
299.1659566281622	-701.1921634209951	-402.02620679283297
300.05315336785384	-702.0798672005023	-402.0267138326485
300.2781415117298	-702.3047592707646	-402.0266177590348
299.8662099585352	-701.8925798949591	-402.0263699364239
299.2365136578721	-701.2624779354511	-402.025964277579
299.0544162836545	-701.0799942390155	-402.025577955361
299.9689450933014	-701.9945077255264	-402.02556263222505
301.9999550767021	-704.0260786955145	-402.02612361881233
304.29709431156425	-706.3243191113352	-402.0272247997709
305.30527162322096	-707.3334665404265	-402.0281949172055
303.7737462312616	-705.801886576942	-402.0281403456804
299.938770721323	-701.9652404772829	-402.0264697559599
295.6259967946208	-697.6519559449508	-402.02595915033004
292.038879417501	-694.0644486656175	-402.02556924811654
289.9087175288335	-691.9338165801441	-402.02509905131063
289.9373425154742	-691.9622561922334	-402.02491367675924
292.3463510452166	-694.3716059937985	-402.02525494858196
296.5211927280375	-698.5472773246461	-402.0260845966086
301.0951604679579	-703.1222074814283	-402.0270470134704
304.513506254262	-706.5411298657376	-402.02762361147563
305.81328687040514	-707.8408199845056	-402.0275331141005
305.0614814884779	-707.0883748938783	-402.02689340540036
303.2076621121786	-705.2336862491666	-402.026024136988
301.5924653836609	-703.6177342613358	-402.02526887767493
301.3721246345153	-703.3971235487896	-402.02499891427436
302.95231516723624	-704.977669572405	-402.0253544051688
305.8161186084529	-707.8420558144536	-402.0259372060007
309.06825772594294	-711.0945515774517	-402.0262938515088
312.07770437234416	-714.1040941468707	-402.02638977452654
314.57794511387755	-716.60438514442	-402.02644003054246
316.3950047100414	-718.42156908335	-402.02656437330864
317.30055429788325	-719.3271091454166	-402.0265548475333
317.2725861814145	-719.2988256036729	-402.02623942225836
316.6881484298237	-718.714081721997	-402.0259332921733
315.9131494005564	-717.9391901405671	-402.0260407400107
314.83560475960314	-716.8618630004374	-402.0262582408343
313.17758959309936	-715.2039497161803	-402.02636012308096
310.8552499043845	-712.881574228291	-402.0263243239065
308.0457079932743	-710.0718997813368	-402.02619178806253
305.1386047426305	-707.1645494306534	-402.02594468802295
302.68214090814155	-704.7079898888062	-402.02584898066465
301.1093902548832	-703.1352609937952	-402.02587073891203
300.62998428740065	-702.6558964968643	-402.0259122094637
301.28990528204565	-703.3163043295707	-402.02639904752505
302.36862751300873	-704.396320577011	-402.0276930640023
302.18315448967445	-704.2113814249674	-402.02822693529293
300.00805039972414	-702.0358209355662	-402.0277705358421
296.5320861630618	-698.5593279551515	-402.0272417920897
292.8774636023861	-694.9035261288033	-402.02606252641715
290.8253200315888	-692.8504556155278	-402.02513558393906
291.5660890217769	-693.5917142365762	-402.0256252147993
294.1851581334024	-696.2120151552565	-402.0268570218541
296.67056019956175	-698.6982410150237	-402.0276808154619
297.59788075175913	-699.6255399765544	-402.02765922479523
296.9484716538622	-698.9750772332479	-402.0266055793857
296.25698291347817	-698.2822025718206	-402.0252196583424
297.4352056377328	-699.4601686167481	-402.0249629790153
300.79802221677045	-702.8239027199143	-402.0258805031438
304.9203861298697	-706.947231960355	-402.0268458304853
308.41396355594424	-710.4408615144814	-402.0268979585372
311.00295963760107	-713.0294397549224	-402.0264801173213
313.15825003389403	-715.1844937185541	-402.0262436846601
315.24912349039903	-717.2756497112241	-402.0265262208251
316.8353149216616	-718.8626522708704	-402.0273373492088
316.8638555790443	-718.8916887282194	-402.0278331491751
314.755834360279	-716.7834531578528	-402.02761879757384
310.87413272940165	-712.9013021752721	-402.02716944587047
306.36385996840767	-708.3901218168897	-402.0262618484821
302.6929539324414	-704.7188984399753	-402.0259445075339
300.830774360481	-702.8563406799146	-402.02556631943366
301.5183383953279	-703.5439359786582	-402.0255975833303
304.6573935433641	-706.684296809271	-402.0269032659069
308.3740992376834	-710.4022514823089	-402.02815224462546
310.7113330544308	-712.7396215269337	-402.0282884725029
311.20608492486576	-713.2338629666182	-402.0277780417524
310.4275379009714	-712.4549554611772	-402.0274175602058
309.02244178439486	-711.0498794578068	-402.02743767341195
307.2972569851479	-709.3247108788515	-402.02745389370364
305.3982932365816	-707.4262030103006	-402.027909773719
303.4457829999362	-705.4730227203339	-402.0272397203977
302.1016549009952	-704.1282310216204	-402.02657612062524
302.57420730471534	-704.6001551532305	-402.02594784851516
305.62712972542636	-707.6533160635772	-402.02618633815086
310.7111282695845	-712.7381689040044	-402.0270406344199
316.31522873306466	-718.3431605173025	-402.02793178423786
320.8346465465456	-722.863231670124	-402.0285851235784
323.10594742427554	-725.134782321028	-402.0288348967524
322.7288596172177	-724.7573209686118	-402.02846135139407
320.42609423757006	-722.4529175050017	-402.0268232674316
318.03135340215636	-720.057314311275	-402.0259609091187
316.7227718072749	-718.7489400102223	-402.0261682029474
316.4595766032166	-718.4861228463215	-402.02654624310486
316.8575114668783	-718.8843949966072	-402.0268835297289
317.6485956790805	-719.6755773268362	-402.02698164775575
318.5205497000898	-720.5479707491977	-402.0274210491079
318.8919294477947	-720.9195101225223	-402.0275806747276
318.53614892062	-720.5631476957337	-402.0269987751137
318.1715583531554	-720.1977432390174	-402.02618488586205
318.7849393373723	-720.8110326620246	-402.02609332465227
320.29478835820936	-722.3220554389077	-402.0272670806983
321.0791699969518	-723.1076131045833	-402.02844310763146
319.3239883891073	-721.3531005999498	-402.0291122108425
314.52276796995983	-716.5509722791998	-402.0282043092399
308.2223606155551	-710.2489566084874	-402.02659599293236
302.67088221916765	-704.6963899487718	-402.0255077296041
299.6896433031499	-701.7146024992109	-402.02495919606093
300.10007746838573	-702.1256998630141	-402.0256223946284
303.3349650245113	-705.3615213920333	-402.026556367522
307.9520796602789	-709.9798807049613	-402.02780104468235
311.9401139479713	-713.9689637906439	-402.02884984267257
313.7916248401201	-715.8199625363835	-402.0283376962634
313.8236504173677	-715.8511832177476	-402.0275328003799
313.29402128496804	-715.3209696523855	-402.0269483674175
313.0425307626994	-715.0700035285063	-402.02747276580686
312.4763574759902	-714.5045171750805	-402.02815969909034
310.74500406827804	-712.7729350343013	-402.0279309660233
308.2266007085917	-710.2534162279817	-402.02681551938997
306.500996462104	-708.5272982618781	-402.02630179977405
306.47937180884225	-708.5057755959673	-402.02640378712505
307.9887943442165	-710.0158646378803	-402.0270702936638
310.04749949004247	-712.0749100009416	-402.02741051089913
311.9942044643162	-714.021461142251	-402.0272566779348
313.7704784142002	-715.7978280436935	-402.02734962949324
315.10189368590744	-717.1296116223328	-402.0277179364254
315.41362870687993	-717.441571792402	-402.02794308552205
314.4024633873925	-716.4301080052745	-402.027644617882
312.55952776669204	-714.5863432084925	-402.02681544180047
311.085350338026	-713.1115609713086	-402.0262106332826
310.8219865874977	-712.8485631624707	-402.026576574973
311.25636672571596	-713.2840150684503	-402.0276483427344
310.8870366973496	-712.9155462944162	-402.02850959706666
308.54925862611555	-710.5776879057314	-402.02842927961586
304.5119713664067	-706.5392872651948	-402.0273158987881
300.5387366921017	-702.5648374683637	-402.02610077626207
298.511034254314	-700.536960244143	-402.025925989829
298.86851187174096	-700.8950594404289	-402.02654756868793
300.8162584140897	-702.8433886431181	-402.02713022902844
303.4329101811809	-705.4604166315843	-402.0275064504034
306.039310628851	-708.067138594394	-402.027827965543
308.0153348199181	-710.0435129631408	-402.02817814322265
309.20817143828964	-711.2353879174264	-402.0272164791367
310.7920390107643	-712.8187398677477	-402.0267008569834
313.36254856703914	-715.3896472134996	-402.0270986464605
316.17332733481334	-718.2011840569152	-402.02785672210183
317.88314163389333	-719.9117560538054	-402.0286144199121
317.25849632394414	-719.2874664874606	-402.0289701635165
313.9450439897309	-715.973175683497	-402.02813169376606
309.4135558037572	-711.4400427198999	-402.0264869161427
306.0977407037333	-708.1235563817032	-402.02581567796994
305.2767917876533	-707.3019152695533	-402.02512348190004
307.22692617448234	-709.252531417402	-402.02560524291965
310.9708782154519	-712.9975041494125	-402.02662593396064
314.7575253845486	-716.7852879555222	-402.0277625709736
316.8027299637503	-718.8310773033159	-402.0283473395655
316.2691385190458	-718.2971285407152	-402.02799002166944
313.76810500808267	-715.7952052541496	-402.0271002460669
310.6834708873442	-712.710179768605	-402.02670888126084
307.8344180676551	-709.8610258823205	-402.0266078146654
305.58979853747195	-707.6160588050824	-402.02626026761044
304.4897879751758	-706.5157622349979	-402.0259742598221
304.92613182274584	-706.9521843649509	-402.02605254220504
306.6360111374141	-708.6628938791256	-402.0268827417115
308.26347632429355	-710.29169065932	-402.02821433502646
307.8546543987364	-709.8836191665653	-402.0289647678289
304.520356810564	-706.54816235926	-402.027805548696
300.2185367480293	-702.2437129115302	-402.02517616350093
298.4190253920125	-700.444469391118	-402.0254439991055
298.86406071830623	-700.8913091873636	-402.0272484690574
298.9777353887734	-701.0051866093395	-402.0274512205661
298.057232537767	-700.0840549104751	-402.02682237270807
296.8596842811036	-698.8858846974466	-402.026200416343
296.31778017670416	-698.3437593346446	-402.0259791579404
296.8720154015828	-698.8981321420168	-402.026116740434
298.5273241476861	-700.5532933513232	-402.0259692036371
301.5595290654587	-703.5853172898694	-402.0257882244107
305.9719171681324	-707.9990350974937	-402.0271179293613
309.93586065779397	-711.9642766926465	-402.02841603485257
311.4469209918379	-713.4755152905459	-402.028594298708
310.0500187549235	-712.0781598551837	-402.0281411002602
306.42171338217355	-708.449252447512	-402.02753906533843
301.63533209579356	-703.6624085316571	-402.02707643586353
296.6327594175438	-698.6596712625047	-402.0269118449609
292.0197158599767	-694.046134066388	-402.02641820641134
288.68440392869934	-690.7101126524581	-402.0257087237587
287.58160951517226	-689.6070620357548	-402.0254525205825
288.8339307229363	-690.8597782018707	-402.02584747893434
291.72596476483994	-693.7523303232748	-402.02636555843486
295.2486449028034	-697.275501565075	-402.02685666227165
298.4376699270718	-700.4648685847781	-402.02719865770626
300.6151392230539	-702.6424296517762	-402.02729042872227
301.5395114609619	-703.566694449617	-402.0271829886551
301.33054630195613	-703.3575670706547	-402.02702076869855
300.2725426850243	-702.2993488185779	-402.0268061335536
298.7424496314424	-700.769128563258	-402.02667893181564
296.9608143951935	-698.9878056099097	-402.02699121471625
294.58120463556503	-696.6087299355869	-402.02752530002186
291.0127790854184	-693.0404324479712	-402.02765336255277
286.2616823119948	-688.2887403333668	-402.02705802137206
281.4176402833938	-683.4434017551448	-402.025761471751
278.39042059909457	-680.4154106055336	-402.024990006439
278.26531036185787	-680.2907809982042	-402.02547063634637
280.2424345881121	-682.268920826878	-402.0264862387659
282.6024673860312	-684.6294172094356	-402.0269498234044
284.1891342725516	-686.2160155727227	-402.02688130017106
284.83310903865413	-686.8595643345391	-402.02645529588494
284.9102409721738	-686.9363964709119	-402.02615549873804
284.57982738672797	-686.6061351224201	-402.02630773569217
283.8170487209854	-685.8431717562215	-402.02612303523614
282.8560894100362	-684.8820865282175	-402.02599711818135
281.8730772544415	-683.8990509605487	-402.0259737061072
280.94195634011294	-682.9680171555665	-402.02606081545355
280.04556743820245	-682.0718191122278	-402.02625167402533
278.99385559025956	-681.0202534978677	-402.0263979076081
277.5804528252978	-679.6070240492378	-402.02657122394
275.93172590701823	-677.958381952767	-402.0266560457488
274.4634254359491	-676.4892725443049	-402.0258471083558
273.88105215585585	-675.9068578394038	-402.0258056835479
274.3858811657235	-676.4116763481087	-402.0257951823852
275.85106651646333	-677.8770146666573	-402.0259481501939
277.8942011957602	-679.9203766955013	-402.0261754997411
279.99954201138706	-682.026006848655	-402.02646483726795
281.560773554906	-683.5877419244429	-402.02696836953686
281.7789499407894	-683.8064075167883	-402.02745757599894
280.0448535545523	-682.0722170029225	-402.0273634483702
276.69953834077995	-678.726079396118	-402.0265410553381
273.1423151921514	-675.1680312979225	-402.02571610577115
270.77765986094164	-672.8032754888735	-402.02561562793187
270.0011040939914	-672.0270371269862	-402.0259330329948
270.5429149742767	-672.5688818338335	-402.02596685955683
272.3792056382849	-674.4049643332608	-402.0257586949759
275.6893302018902	-677.7153329658919	-402.0260027640017
279.9948632223722	-682.0216293958443	-402.02676617347214
284.1007994227285	-686.1280625975951	-402.02726317486656
287.1465019380923	-689.1735282920038	-402.0270263539115
289.24398041723634	-691.2705342982646	-402.02655388102824
290.91518417016374	-692.9413652744215	-402.0261811042578
292.626827098567	-694.6525986865199	-402.02577158795293
294.8274028521278	-696.8531221955021	-402.0257193433743
297.5079033654553	-699.5342246142775	-402.02632124882217
299.84208523793257	-701.8688877226455	-402.0268024847129
301.23151982859616	-703.2580224587846	-402.0265026301884
302.18005719794854	-704.2059870640281	-402.0259298660796
303.49339139839617	-705.5199069743726	-402.0265155759764
304.5334391079358	-706.5610349700198	-402.027595862084
304.15124586717343	-706.1782948761229	-402.02704900894946
303.01896520116753	-705.0454533570247	-402.0264881558572
301.8583000098815	-703.8852223510663	-402.02692234118484
300.2648893876457	-702.2914221033915	-402.02653271574576
298.83378883052313	-700.859323888884	-402.02553505836084
298.8700419360267	-700.8954766257833	-402.0254346897566
300.50361745497514	-702.5299391349832	-402.0263216800081
302.4600398817646	-704.4873867442402	-402.0273468624756
303.2003654671468	-705.2282686920381	-402.0279032248913
301.87856463913585	-703.9063880268276	-402.02782338769174
298.6610596084089	-700.6882922596428	-402.02723265123393
294.52830914724433	-696.5547773722691	-402.02646822502476
290.6530219860171	-692.6792364397413	-402.0262144537242
287.7712031974049	-689.7970933363176	-402.02589013891276
286.4958438000925	-688.5214982476592	-402.02565444756675
287.1815199904332	-689.2074363909438	-402.02591640051065
289.42657149207923	-691.4530339221038	-402.0264624300246
292.3719590425398	-694.398638302784	-402.0266792602442
295.4132215314262	-697.4399650651233	-402.0267435336971
298.3388945666732	-700.3654611700443	-402.0265666033711
301.22642127304687	-703.2529454663668	-402.0265241933199
304.00855486288395	-706.0349755579251	-402.02642069504117
306.5684710545503	-708.5950387200139	-402.02656766546363
308.70107449153795	-710.7277964084346	-402.0267219168967
310.1407801483759	-712.167629225938	-402.0268490775621
310.6666044566537	-712.6937569240524	-402.0271524673987
309.85852377450476	-711.8862162876177	-402.0276925131129
307.091377666876	-709.1192317535387	-402.02785408666267
302.4152088983302	-704.4424984552006	-402.0272895568704
296.99490964616757	-699.0211061569156	-402.02619651074804
292.572192822577	-694.5977605410426	-402.0255677184656
290.2401711220416	-692.2658765339522	-402.0257054119106
290.0117662447353	-692.0376291551293	-402.0258629103939
291.66920356010553	-693.6951588877168	-402.0259553276113
294.9049962809104	-696.9315849128091	-402.0265886318987
298.6777930994121	-700.7053079760943	-402.02751487668223
301.6138619377777	-703.6415842005896	-402.0277222628119
303.323392888584	-705.3508638890127	-402.02747100042865
304.3435304277179	-706.3706830750916	-402.0271526473737
304.89118548523453	-706.918411848204	-402.02722636296943
304.8229902559491	-706.8499748445188	-402.0269845885697
304.29852743618784	-706.325336839707	-402.02680940351917
303.40300723436667	-705.4300458495466	-402.0270386151799
301.79275347968513	-703.819868798711	-402.0271153190259
299.363753088209	-701.3905487169321	-402.0267956287231
296.6113207359405	-698.6376410174571	-402.0263202815166
294.33660404337127	-696.3624111845535	-402.0258071411822
293.38163539356657	-695.4065874143863	-402.02495202081974
294.7239775903607	-696.7490712404054	-402.02509365004477
298.2370243525017	-700.2639472299916	-402.0269228774899
301.9446532568862	-703.9726497129864	-402.02799645610014
304.0676503491312	-706.0960792913247	-402.0284289421935
303.9351385537654	-705.9630938775817	-402.02795532381634
302.2211229402508	-704.2480607850266	-402.02693784477583
300.38507513487315	-702.4112404409467	-402.02616530607355
299.55929848328105	-701.5853212520095	-402.02602276872847
299.96514548005894	-701.9914063445742	-402.0262608645153
301.20380135469577	-703.2304074913831	-402.0266061366873
302.6833621665063	-704.7102041679523	-402.02684200144597
304.11063952793603	-706.1368843846187	-402.0262448566827
305.5024364668197	-707.5290125236868	-402.0265760568671
306.32776715633275	-708.3546869297202	-402.0269197733874
306.05739016157935	-708.0844758188306	-402.02708565725123
304.42568447162375	-706.452665675548	-402.02698120392427
301.58254339638063	-703.6094920029891	-402.02694860660847
297.93014013406196	-699.9565643006615	-402.02642416659955
294.3709707767838	-696.3968717275663	-402.02590095078256
291.85695623071126	-693.8825222398153	-402.02556600910407
291.04828255234156	-693.0737930895755	-402.0255105372339
292.1746760359346	-694.2002562813191	-402.02558024538445
295.18807128600224	-697.2138537729475	-402.0257824869452
299.6950427086512	-701.7221677126586	-402.02712500400736
304.19056579911285	-706.2188968264222	-402.0283310273094
306.7354362012974	-708.7648274001355	-402.0293911988381
305.9595803566245	-707.9891276471093	-402.0295472904848
302.0105737743786	-704.0393676075881	-402.02879383320953
296.35004137463517	-698.3773469027698	-402.0273055281346
291.5483302793049	-693.5741766136689	-402.025846334364
289.98743660437884	-692.0132832453171	-402.02584664093825
291.91891717347966	-693.9462146966924	-402.0272975232128
295.483868008013	-697.5124111304506	-402.02854312243755
298.838026501358	-700.8669711594413	-402.0289446580833
301.2304391264817	-703.259107198483	-402.02866807200127
302.7344021905227	-704.7633158162682	-402.02891362574553
303.0826849299054	-705.112208797729	-402.02952386782357
301.5714321403168	-703.6007587559515	-402.02932661563466
298.8571436538616	-700.8845218396001	-402.0273781857385
297.65544981827964	-699.6821449938312	-402.0266951755516
298.7876582507577	-700.8163847136911	-402.02872646293343
299.5331747594664	-701.5629886870623	-402.0298139275959
297.9836143972575	-700.01298985757	-402.0293754603125
294.37763824280114	-696.4062490469425	-402.0286108041414
289.78144513467765	-691.8089451293274	-402.02749999464976
285.8853849938344	-687.9114439071476	-402.0260589133132
284.72072145767635	-686.7462489879208	-402.02552753024446
287.0108131314092	-689.0372040176647	-402.02639088625557
291.6012074429843	-693.6283713760652	-402.0271639330809
297.3315990667366	-699.3586492068687	-402.0270501401321
303.9413925863752	-705.9690524995372	-402.027659913162
310.22908692379315	-712.25826273228	-402.0291758084868
313.90462979658474	-715.9345473741083	-402.0299175775236
313.69162238833974	-715.7213001922157	-402.029677803876
309.82738547688393	-711.8564791021895	-402.02909362530556
303.413411510648	-705.4415326158509	-402.02812110520284
296.2286402880551	-698.2555326234856	-402.0268923354305
290.32121283315246	-692.34744967064	-402.02623683748755
286.885000882613	-688.9112983340508	-402.0262974514378
285.90369326364356	-687.9306401824458	-402.02694691880225
286.37796636317387	-688.4057398128672	-402.0277734496933
286.97924873546265	-689.0075258181646	-402.02827708270195
286.7839375245101	-688.8121520292597	-402.02821450474954
285.9518944501581	-687.9793223118131	-402.02742786165504
285.8550156077872	-687.8810461374671	-402.02603052967993
288.34964158214956	-690.3761326605716	-402.026491078422
292.7248154993423	-694.7532356974374	-402.0284201980951
296.15212668448083	-698.1814975039954	-402.02937081951455
296.926050554314	-698.9551520464917	-402.0291014921777
295.197217630869	-697.2254605385639	-402.0282429076949
292.1450125708675	-694.1725425772203	-402.0275300063528
289.018401784447	-691.0450360531913	-402.0266342687443
286.8428467512739	-688.8690508568175	-402.02620410554357
286.17854336441803	-688.2048392551013	-402.0262958906833
286.75453381648606	-688.7815730939907	-402.0270392775046
287.43725612481137	-689.4647372899678	-402.0274811651565
287.51019985688237	-689.537471330165	-402.0272714732826
287.09495350225853	-689.12227485549	-402.02732135323146
286.0032313756534	-688.0310600662959	-402.02782869064254
283.6507055934637	-685.6782314435976	-402.0275258501339
280.42369938043737	-682.4505699826234	-402.026870602186
277.5000204050637	-679.5264728861689	-402.0264524811052
275.7634608844717	-677.7899655501872	-402.02650466571544
275.2875768825204	-677.3143594841257	-402.0267826016053
275.8513463941448	-677.8778660069986	-402.0265196128538
277.73382744420593	-679.7601940921999	-402.02636664799394
280.89484748597437	-682.9219564699191	-402.02710898394474
284.0371834271228	-686.0651382892466	-402.02795486212386
285.61622153457853	-687.6444570029389	-402.0282354683604
284.92330911338223	-686.9512461592876	-402.0279370459054
282.16846041225887	-684.1959107118583	-402.0274502995995
278.3227554674479	-680.3488974779026	-402.0261420104547
275.08115086261375	-677.1069524036639	-402.0258015410501
273.0542690219259	-675.080263056729	-402.0259940348031
271.98164880434774	-674.0079174930636	-402.02626868871585
271.8156048170856	-673.8415275780596	-402.025922760974
273.00999725446627	-675.0358213550211	-402.0258241005548
275.6421157322666	-677.6685339238671	-402.02641819160056
278.79522370097806	-680.82280996999	-402.0275862690119
280.78113162455963	-682.8097526794613	-402.0286210549017
280.3996894683993	-682.428055969938	-402.0283665015387
277.6784714261915	-679.706147308311	-402.02767588211947
273.8843158270487	-675.9106075010775	-402.0262916740288
271.1623205300148	-673.1880068206058	-402.02568629059095
270.73411181867306	-672.7603672691776	-402.0262554505045
271.8890577987288	-673.9162900474261	-402.02723224869726
273.12394489941624	-675.1516738879407	-402.0277289885244
273.5187895378433	-675.5465208540759	-402.0277313162326
272.91895828091566	-674.9464581147605	-402.02749983384484
271.6161678035063	-673.6432255224801	-402.02705771897377
270.18580617313614	-672.2124075535304	-402.02660138039425
269.36714103708783	-671.3933614451283	-402.0262204080405
269.66714873948445	-671.6935966564175	-402.0264479169331
270.74398258725205	-672.7710550465536	-402.0270724593015
271.7296659054009	-673.7572903941727	-402.02762448877183
271.8419571157464	-673.8695744830421	-402.0276173672957
270.9967103410043	-673.0241619083157	-402.0274515673114
269.12704066576947	-671.1553154223915	-402.028274756622
266.4475579157396	-668.474800313003	-402.0272423972634
264.4624846330921	-666.4890475820094	-402.02656294891733
264.17833698045376	-666.2047730394228	-402.026436058969
265.7140547655268	-667.7405598982762	-402.0265051327494
268.71609376027794	-670.7430038025577	-402.0269100422798
272.36073146915015	-674.388148612445	-402.0274171432948
275.6820171026416	-677.7097954694793	-402.0277783668377
277.8735135590534	-679.9015008300092	-402.02798727095586
278.5986040226142	-680.6252955513012	-402.02669152868697
278.70421958412874	-680.7309488700906	-402.0267292859619
278.5557183823548	-680.5827576872878	-402.02703930493294
277.8111309718706	-679.8390751343263	-402.0279441624557
275.9589109117791	-677.9866047454491	-402.02769383366996
273.39514593524336	-675.4225516436993	-402.02740570845594
270.71281472210916	-672.7402148770144	-402.02740015490525
268.1748035445263	-670.2019708258388	-402.0271672813125
266.2677874885134	-668.2944134865756	-402.02662599806223
265.5127312995781	-667.5398034702687	-402.0270721706906
265.36093373894334	-667.3884636536682	-402.0275299147248
265.23392704949663	-667.2610746939218	-402.0271476444252
265.6286562731849	-667.6550231825491	-402.02636690936424
267.6682962037872	-669.6948777139495	-402.0265815101623
271.2322015953594	-673.2600432414101	-402.0278416460507
274.4995722942615	-676.5284977941689	-402.02892549990736
275.86644789291336	-677.8954318757496	-402.0289839828363
275.245004526725	-677.2730312755532	-402.0280267488282
274.082816600243	-676.1096104566905	-402.02679385644745
274.18256895252915	-676.2090818913359	-402.0265129388068
276.0146939336431	-678.0418731159015	-402.02717918225835
278.6708186521269	-680.698538631055	-402.02771997892813
281.19106276954903	-683.2191176800854	-402.0280549105364
282.94562121798674	-684.9739502140484	-402.02832899606165
283.5052276804453	-685.5334984897394	-402.0282708092941
282.9392648599333	-684.9670793912126	-402.02781453127926
281.85110290945187	-683.8785739122685	-402.02747100281664
280.763377791022	-682.7906976225328	-402.0273198315108
279.93128361565516	-681.9585518501419	-402.02726823448677
279.3918977833091	-681.4194176925971	-402.027519909288
278.7571570657755	-680.7851326954286	-402.0279756296531
277.40746471023704	-679.4355955495045	-402.0281308392674
275.1307801796537	-677.1586268227665	-402.02784664311275
272.4020760017464	-674.4292752092182	-402.02719920747177
270.2348000865711	-672.2614308958148	-402.02663080924367
269.5090427999979	-671.5358685986098	-402.02682579861187
270.00130540246846	-672.02959526057	-402.0282898581015
270.2294249349324	-672.2582929958372	-402.0288680609048
269.9750318833782	-672.0021355079278	-402.0271036245496
271.7879023895233	-673.814198753957	-402.02629636443373
276.593484445173	-678.6218126687486	-402.0283282235756
281.5486512240553	-683.5779941337652	-402.0293429097099
284.5345308558401	-686.5639437788233	-402.02941292298317
285.03398716021644	-687.062916191189	-402.0289290309725
283.5908519180774	-685.6190109777177	-402.0281590596403
281.3127643645323	-683.340353045552	-402.02758868101967
279.17847494607173	-681.2055031971911	-402.02702825111936
277.9959224423015	-680.0227342163394	-402.02681177403787
278.2873860221557	-680.3142297668721	-402.0268437447164
280.12486261413187	-682.151841824055	-402.0269792099232
283.29840331430285	-685.3257297939621	-402.0273264796592
287.1944010417003	-689.2224183461317	-402.0280173044314
290.7868188403701	-692.815179012662	-402.02836017229197
293.48702085564	-695.515294815471	-402.0282739598309
295.2627369297689	-697.2911217715691	-402.02838484180023
295.928305399999	-697.9568448909306	-402.0285394909316
295.2581130751631	-697.2865917890597	-402.02847871389656
293.31889206236326	-695.3472616718748	-402.0283696095115
290.33920982177796	-692.3673699346226	-402.02816011284466
